# .PCD v0.7 - Point Cloud Data file format
VERSION 0.7
FIELDS x y z
SIZE 4 4 4
TYPE F F F
COUNT 1 1 1
WIDTH 1558
HEIGHT 1
VIEWPOINT 0 0 0 1 0 0 0
POINTS 1558
DATA ascii
159.45715 -17.342474 899.52539
159.76303 -17.337965 899.2998
160.0983 -17.33666 899.22388
160.43663 -17.335693 899.17511
160.78389 -17.335693 899.17365
161.12946 -17.335508 899.16406
161.47672 -17.335508 899.15979
161.79684 -17.3326 899.01324
162.13358 -17.33148 898.95514
162.4561 -17.32885 898.81866
162.78656 -17.327074 898.73889
163.12617 -17.326279 898.71661
163.47894 -17.326881 898.71661
163.82603 -17.326881 898.71661
164.18097 -17.327707 898.75952
164.53918 -17.328876 898.82013
164.91112 -17.331484 898.95532
165.30592 -17.336477 899.1911
165.65448 -17.336611 899.22125
166.01071 -17.337543 899.25452
166.35983 -17.337732 899.27942
166.71498 -17.338547 899.32861
167.07999 -17.340382 899.41687
167.45103 -17.342834 899.53589
167.82019 -17.345081 899.66064
168.1806 -17.346418 899.72992
168.56047 -17.349751 899.88611
168.92497 -17.35149 899.98499
169.31564 -17.355907 900.21973
169.68338 -17.35796 900.26947
170.05864 -17.360771 900.47443
170.45006 -17.365217 900.70508
170.8231 -17.367779 900.83789
171.23689 -17.37446 901.18451
171.63246 -17.379274 901.43414
172.04924 -17.386208 901.79382
172.41833 -17.388308 901.88477
172.86455 -17.398159 902.41321
150.2998 -17.139307 907.03442
150.57668 -17.130947 906.67902
150.80588 -17.117214 905.99054
151.13512 -17.114874 905.8667
151.38388 -17.103453 905.26215
151.64032 -17.092949 904.70618
151.98288 -17.092178 904.66547
152.21835 -17.079397 903.98895
152.53328 -17.075567 903.78619
152.84595 -17.071505 903.57117
153.10506 -17.061489 903.04114
153.42473 -17.058254 902.86987
153.71228 -17.051472 902.51093
154.00867 -17.045698 902.20526
154.34874 -17.044773 902.15631
154.62299 -17.0366 901.72375
154.94543 -17.033762 901.57349
155.25179 -17.029171 901.33057
155.56532 -17.025389 901.13031
155.89963 -17.02389 901.05103
156.1853 -17.017099 900.69165
156.51929 -17.015591 900.61176
156.83643 -17.012262 900.43561
157.16037 -17.009684 900.29913
157.49817 -17.008615 900.24255
157.81383 -17.005165 900.05988
158.14198 -17.003071 899.9491
158.46002 -16.999903 899.78143
158.79202 -16.998243 899.6936
159.1259 -16.99679 899.61664
159.45734 -16.995085 899.52637
159.76303 -16.990648 899.2998
160.10219 -16.989782 899.24573
160.43689 -16.988447 899.1947
160.78416 -16.988447 899.17365
161.13116 -16.98842 899.17365
161.47844 -16.98842 899.16406
161.79684 -16.98539 899.01324
162.13358 -16.984291 898.95514
162.45126 -16.981207 898.80786
162.78885 -16.980213 898.73926
163.1263 -16.979208 898.71661
163.47894 -16.979784 898.71661
163.82603 -16.979784 898.71661
164.1772 -16.980206 898.74725
164.53918 -16.981741 898.82013
164.90855 -16.984032 898.94141
165.29909 -16.988487 899.1911
165.6501 -16.988871 899.21442
166.00557 -16.989708 899.24188
166.35522 -16.989948 899.27942
166.71196 -16.99091 899.32861
167.07928 -16.992945 899.41687
167.44899 -16.995211 899.54413
167.81969 -16.99757 899.66064
168.1806 -16.99893 899.72992
168.55313 -17.001457 899.87781
168.91559 -17.002958 899.99304
169.31165 -17.007828 900.20087
169.67224 -17.009125 900.32861
170.05269 -17.012402 900.47443
170.45006 -17.017353 900.70508
170.8231 -17.019863 900.83789
171.22623 -17.025352 901.18451
171.60054 -17.02796 901.43414
172.04666 -17.037668 901.78186
172.41492 -17.039642 901.90271
172.86446 -17.049625 902.41321
150.58028 -16.781162 906.73914
150.80693 -16.767426 905.99683
151.13651 -16.765171 905.875
151.38519 -16.753975 905.27002
151.64626 -16.744194 904.74158
151.98288 -16.742785 904.66547
152.21835 -16.730265 903.98895
152.53328 -16.726513 903.78619
152.84595 -16.722532 903.57117
153.10506 -16.712723 903.04114
153.42473 -16.709555 902.86987
153.7137 -16.703064 902.51917
154.00867 -16.697254 902.20526
154.34874 -16.696348 902.15631
154.62299 -16.688343 901.72375
154.94543 -16.685562 901.57349
155.25179 -16.681067 901.33057
155.56532 -16.677361 901.13031
155.89963 -16.675892 901.05103
156.1853 -16.669241 900.69165
156.51929 -16.667763 900.61176
156.83643 -16.664503 900.43561
157.16101 -16.662045 900.3028
157.49817 -16.660931 900.24255
157.81494 -16.657667 900.05988
158.14198 -16.655499 899.9491
158.46188 -16.652592 899.79199
158.79787 -16.651382 899.72668
159.1259 -16.649345 899.61664
159.45734 -16.647675 899.52637
159.76944 -16.643997 899.3277
160.1022 -16.642483 899.24573
160.44038 -16.641537 899.1947
160.78766 -16.641537 899.1947
161.13116 -16.641148 899.17365
161.47844 -16.641148 899.17365
161.79684 -16.638178 899.01324
162.13733 -16.637489 898.95514
162.45415 -16.634378 898.80786
162.78885 -16.633108 898.75037
163.12668 -16.632162 898.73889
163.48299 -16.633102 898.73889
163.83009 -16.633102 898.73889
164.17873 -16.633255 898.75037
164.54384 -16.635077 898.84564
164.90855 -16.636848 898.94141
165.30165 -16.64147 899.17719
165.6501 -16.641588 899.21442
166.00557 -16.64241 899.24188
166.36252 -16.643375 899.27942
166.72319 -16.644709 899.36078
167.08881 -16.646526 899.41687
167.45103 -16.648005 899.54413
167.82103 -16.650244 899.66064
168.19073 -16.652445 899.78412
168.55579 -16.654179 899.875
168.9288 -16.656691 900.01349
169.31165 -16.660158 900.20087
169.68338 -16.662521 900.32861
170.07684 -16.667006 900.47443
170.45102 -16.669582 900.70508
170.83185 -16.6728 900.88397
171.23689 -16.678362 901.18451
171.63246 -16.682983 901.43414
172.04695 -16.689417 901.78186
172.42337 -16.692141 901.92902
172.86446 -16.701103 902.41321
150.58127 -16.431076 906.74506
150.80693 -16.417519 905.99683
151.1387 -16.415548 905.88818
151.38815 -16.404667 905.28772
151.65034 -16.395214 904.76599
151.9843 -16.393543 904.67383
152.22052 -16.381365 904.00177
152.53328 -16.377459 903.78619
152.84727 -16.373703 903.57898
153.10896 -16.364374 903.06409
153.42831 -16.361237 902.89099
153.7137 -16.354498 902.51917
154.00867 -16.34881 902.20526
154.349 -16.34795 902.15778
154.62338 -16.340126 901.72607
154.94585 -16.337408 901.57599
155.25179 -16.33296 901.33057
155.56636 -16.329441 901.13635
155.8999 -16.327925 901.05261
156.1853 -16.321383 900.69165
156.52371 -16.320396 900.63727
156.84045 -16.317162 900.45868
157.16101 -16.314337 900.3028
157.49792 -16.313219 900.24115
157.81047 -16.309586 900.05988
158.14198 -16.307926 899.9491
158.46567 -16.30547 899.81348
158.79787 -16.303896 899.72668
159.1259 -16.301903 899.61664
159.46252 -16.300798 899.55573
159.76944 -16.296665 899.3277
160.10219 -16.295181 899.24579
160.44038 -16.294256 899.21692
160.78766 -16.294256 899.1947
161.13116 -16.293875 899.17365
161.47844 -16.293875 899.17365
161.79137 -16.290417 899.01324
162.1265 -16.289204 898.95514
162.44716 -16.286547 898.80786
162.79086 -16.286205 898.75037
163.12617 -16.285027 898.73889
163.47894 -16.285593 898.73889
163.82603 -16.285593 898.73889
164.1772 -16.285997 898.75037
164.54384 -16.287931 898.84564
164.90811 -16.289623 898.94141
165.29868 -16.2939 899.17499
165.6501 -16.294308 899.19751
166.00174 -16.294735 899.24188
166.35179 -16.295004 899.25452
166.71625 -16.296682 899.36078
167.07928 -16.298214 899.42133
167.45103 -16.300589 899.54413
167.81801 -16.302488 899.65796
168.19073 -16.304937 899.78412
168.55324 -16.306389 899.8642
168.9288 -16.309093 900.01349
169.31012 -16.312342 900.20087
169.68338 -16.314804 900.32861
170.05269 -16.316875 900.45715
170.44928 -16.32155 900.71008
170.83185 -16.324867 900.88397
171.22847 -16.329512 901.18317
171.60529 -16.332251 901.33453
172.03223 -16.339739 901.78027
172.42337 -16.343805 901.92902
172.85605 -16.351784 902.41321
150.58987 -16.081799 906.79694
150.80693 -16.06761 905.99683
151.14354 -16.066198 905.91724
151.39653 -16.055922 905.33777
151.65051 -16.045799 904.76697
151.98495 -16.044216 904.6778
152.22118 -16.032297 904.00568
152.53328 -16.028404 903.78619
152.85669 -16.025717 903.63458
153.12091 -16.01685 903.13464
153.43234 -16.012949 902.91473
153.7137 -16.005934 902.51917
154.01657 -16.001186 902.25146
154.34953 -15.99958 902.15839
154.6248 -15.992015 901.73431
154.95116 -15.989754 901.60681
155.25523 -15.985209 901.35059
155.57434 -15.98223 901.16199
155.90117 -15.980056 901.05994
156.19298 -15.974308 900.73584
156.52574 -15.972766 900.64893
156.84299 -15.969651 900.47327
157.16101 -15.966628 900.3028
157.49792 -15.965534 900.24115
157.81802 -15.962744 900.06622
158.14452 -15.96061 899.9491
158.46907 -15.958292 899.83282
158.79872 -15.956495 899.73151
159.13704 -15.955577 899.61664
159.46309 -15.953434 899.55573
159.77731 -15.950119 899.37195
160.10571 -15.948233 899.26556
160.44435 -15.947371 899.21692
160.79164 -15.947371 899.2149
161.13495 -15.946976 899.1947
161.48222 -15.946976 899.17365
161.80928 -15.944983 899.02008
162.13733 -15.943096 898.97595
162.4561 -15.940308 898.81769
162.79413 -15.939415 898.76837
163.13182 -15.938494 898.75037
163.48509 -15.939096 898.73889
163.8322 -15.939096 898.73889
164.18089 -15.939251 898.75909
164.54459 -15.940857 898.84564
164.91112 -15.942731 898.94141
165.29868 -15.946626 899.17499
165.65445 -15.947444 899.22113
166.00766 -15.948012 899.24188
166.37488 -15.949921 899.29401
166.72342 -15.950036 899.36603
167.10046 -15.952871 899.42133
167.46335 -15.954346 899.56012
167.82047 -15.955265 899.66211
168.19527 -15.95786 899.78412
168.55527 -15.959041 899.875
168.93027 -15.961636 900.01349
169.31165 -15.96482 900.20087
169.68338 -15.967085 900.32861
170.07419 -15.971131 900.55676
170.45102 -15.97385 900.71008
170.83542 -15.977268 900.88397
171.24284 -15.98282 901.18451
171.63295 -15.986736 901.38647
172.04695 -15.992858 901.78186
172.42685 -15.99579 901.92902
172.88165 -16.005646 902.44495
150.5901 -15.731606 906.79828
150.80864 -15.71788 906.00714
151.14354 -15.716321 905.91724
151.39653 -15.706268 905.33777
151.65068 -15.696383 904.76697
151.98495 -15.694818 904.6778
152.22185 -15.683227 904.00958
152.54114 -15.68016 903.83282
152.85669 -15.676721 903.63458
153.12091 -15.668047 903.13464
153.43361 -15.66436 902.92212
153.71283 -15.657281 902.51917
154.01657 -15.652725 902.25146
154.34911 -15.651111 902.16089
154.62747 -15.644024 901.74988
154.95116 -15.641541 901.60681
155.25523 -15.637096 901.35059
155.57079 -15.633824 901.16199
155.90117 -15.632054 901.05994
156.19298 -15.626431 900.73584
156.52574 -15.624923 900.64893
156.84299 -15.621877 900.47327
157.16603 -15.619418 900.3316
157.49792 -15.617849 900.24115
157.81374 -15.614696 900.08118
158.13983 -15.612571 899.95093
158.46907 -15.610765 899.83282
158.79872 -15.609007 899.73151
159.12572 -15.606997 899.64136
159.46252 -15.605958 899.55884
159.77731 -15.60277 899.37195
160.10237 -15.600599 899.26556
160.44435 -15.60008 899.24573
160.79164 -15.60008 899.21692
161.13116 -15.59933 899.1947
161.47844 -15.59933 899.17365
161.79318 -15.596194 899.03198
162.12151 -15.594378 898.95154
162.45592 -15.593154 898.81866
162.79413 -15.592299 898.76837
163.13182 -15.591398 898.75037
163.48238 -15.591728 898.73822
163.82948 -15.591728 898.73822
164.17686 -15.591755 898.75909
164.54384 -15.593639 898.84564
164.90811 -15.595259 898.9458
165.29868 -15.599353 899.17499
165.65445 -15.600153 899.22931
166.00557 -15.600513 899.2439
166.35324 -15.600548 899.28046
166.72221 -15.602576 899.36078
167.08081 -15.603627 899.42133
167.45401 -15.606034 899.57104
167.81924 -15.60769 899.66211
168.19073 -15.609921 899.79755
168.55324 -15.61131 899.8642
168.92094 -15.613173 899.98553
169.31165 -15.61715 900.20087
169.68071 -15.61912 900.32861
170.05537 -15.621596 900.55676
170.45102 -15.625985 900.71008
170.83185 -15.629001 900.88397
171.23663 -15.634192 901.21582
171.61349 -15.636818 901.38647
172.03981 -15.643929 901.78186
172.41632 -15.646492 901.92902
172.87053 -15.656081 902.50293
150.59808 -15.382203 906.84631
150.8148 -15.368598 906.03503
151.14354 -15.366444 905.91724
151.39653 -15.356615 905.33777
151.65068 -15.346951 904.76801
151.99271 -15.346203 904.71405
152.22185 -15.334087 904.0097
152.54504 -15.33148 903.85596
152.85909 -15.327966 903.63458
153.12111 -15.319264 903.13464
153.44038 -15.316317 902.96204
153.7137 -15.308805 902.51917
154.01804 -15.304411 902.26013
154.3553 -15.3033 902.19458
154.63208 -15.296212 901.74988
154.95544 -15.293753 901.63177
155.25641 -15.289099 901.35742
155.57166 -15.285869 901.16199
155.90443 -15.284372 901.0788
156.19553 -15.278806 900.75061
156.52704 -15.277207 900.65637
156.84937 -15.274722 900.50983
157.17122 -15.272202 900.36133
157.50327 -15.270681 900.26678
157.8246 -15.268132 900.0838
158.14684 -15.265679 899.9635
158.46938 -15.263267 899.83447
158.79918 -15.261563 899.73413
159.13704 -15.260641 899.67969
159.46309 -15.258592 899.55884
159.77776 -15.255463 899.37195
160.11028 -15.25405 899.2912
160.45302 -15.253616 899.24683
160.79698 -15.253298 899.22827
161.13857 -15.252757 899.21692
161.48586 -15.252757 899.1947
161.8078 -15.250369 899.0423
162.14529 -15.249453 898.95154
162.4585 -15.246262 898.81952
162.80272 -15.245988 898.81586
163.13527 -15.244625 898.75037
163.48668 -15.245026 898.74188
163.83379 -15.245026 898.74188
164.18381 -15.245296 898.75909
164.54459 -15.246562 898.84564
164.92546 -15.249681 898.95532
165.30867 -15.253001 899.22113
165.65865 -15.253248 899.2439
166.01016 -15.253635 899.26672
166.37126 -15.2549 899.31573
166.72319 -15.255321 899.36523
167.08081 -15.256259 899.42133
167.45802 -15.258977 899.5816
167.82047 -15.260343 899.66211
168.1944 -15.262744 899.80371
168.55527 -15.263954 899.875
168.92355 -15.265828 899.98553
169.31746 -15.270006 900.23181
169.68341 -15.27165 900.32861
170.07419 -15.275518 900.55676
170.45651 -15.278612 900.7392
170.83185 -15.281068 900.88397
171.24487 -15.28688 901.22656
171.62338 -15.289592 901.38647
172.05479 -15.296996 901.80792
172.42432 -15.29888 901.93402
172.88226 -15.308585 902.50623
150.60078 -15.032237 906.86255
150.81328 -15.018519 906.04425
151.14354 -15.016566 905.91724
151.39183 -15.006496 905.30969
151.65034 -14.997483 904.76801
151.99104 -14.996623 904.72394
152.22606 -14.985362 904.03467
152.54504 -14.982399 903.85596
152.85669 -14.978729 903.64856
153.12111 -14.970462 903.13464
153.44038 -14.967581 902.96204
153.71588 -14.960452 902.53198
154.01804 -14.955946 902.26013
154.3553 -14.95486 902.19458
154.62747 -14.947489 901.77673
154.95683 -14.945664 901.63983
155.25641 -14.940983 901.35742
155.57079 -14.937743 901.16199
155.90645 -14.936558 901.09045
156.19553 -14.930924 900.75061
156.52916 -14.929564 900.66858
156.85371 -14.927348 900.53485
157.17453 -14.924786 900.38031
157.50241 -14.922904 900.27167
157.81757 -14.919828 900.10748
158.1423 -14.917669 899.96411
158.46938 -14.915739 899.83447
158.79948 -14.914104 899.7359
159.13026 -14.912538 899.67969
159.46309 -14.91117 899.55884
159.77731 -14.908072 899.37445
160.11028 -14.906733 899.2912
160.44968 -14.905997 899.26556
160.79367 -14.90569 899.22827
161.13893 -14.905502 899.22491
161.48764 -14.905634 899.2149
161.80022 -14.902436 899.03967
162.13293 -14.901103 898.95154
162.45625 -14.898914 898.83197
162.80272 -14.898853 898.81586
163.13527 -14.897522 898.74445
163.48238 -14.897522 898.74445
163.82948 -14.897522 898.74445
164.17708 -14.897567 898.75909
164.54118 -14.899107 898.83112
164.90936 -14.901008 899.00787
165.30867 -14.905706 899.22931
165.65865 -14.905949 899.2439
166.00792 -14.906125 899.26672
166.36002 -14.906555 899.29987
166.7186 -14.907563 899.36078
167.0804 -14.908854 899.42133
167.45605 -14.911372 899.5816
167.82047 -14.912881 899.66211
168.19324 -14.915126 899.80371
168.55324 -14.916231 899.875
168.92355 -14.918242 899.98553
169.31746 -14.922325 900.23181
169.68311 -14.923904 900.32874
170.07419 -14.927711 900.55676
170.45651 -14.930735 900.7392
170.8304 -14.933008 900.87628
171.24487 -14.938814 901.22656
171.62338 -14.941464 901.38647
172.05193 -14.948451 901.80792
172.41632 -14.949847 901.93402
172.88226 -14.960025 902.50623
150.81725 -14.668983 906.0589
151.1467 -14.666996 905.9361
151.39183 -14.656854 905.30969
151.65825 -14.648816 904.79755
151.9939 -14.647486 904.73102
152.22775 -14.636374 904.04474
152.54504 -14.633318 903.85596
152.85904 -14.62996 903.64856
153.1187 -14.621428 903.1358
153.44038 -14.618845 902.96204
153.7204 -14.612312 902.55853
154.02449 -14.608093 902.29791
154.362 -14.607056 902.23383
154.63208 -14.599656 901.77673
154.95946 -14.597687 901.65515
155.25659 -14.592883 901.35846
155.57079 -14.589703 901.16199
155.90945 -14.588826 901.10779
156.19553 -14.583043 900.75061
156.53053 -14.581842 900.67645
156.85556 -14.57972 900.54541
157.17944 -14.577503 900.40845
157.50343 -14.575303 900.27258
157.823 -14.572706 900.10748
158.14462 -14.57031 899.96411
158.46945 -14.568218 899.83496
158.80077 -14.566731 899.7406
159.13715 -14.565715 899.67969
159.46675 -14.564083 899.57953
159.77776 -14.560762 899.37445
160.1105 -14.559436 899.29248
160.45323 -14.559019 899.27985
160.79698 -14.558697 899.26556
161.14096 -14.558396 899.22827
161.48825 -14.558396 899.21692
161.80208 -14.555386 899.03967
162.13293 -14.553917 898.95154
162.45953 -14.552073 898.83765
162.80309 -14.551751 898.81781
163.13643 -14.550522 898.75909
163.48286 -14.550462 898.75586
163.82997 -14.550462 898.75586
164.1803 -14.550748 898.75909
164.54118 -14.551967 898.83112
164.92267 -14.554997 899.00787
165.31555 -14.559019 899.2439
165.66286 -14.559019 899.26672
166.0163 -14.559556 899.28204
166.36653 -14.559812 899.30737
166.72305 -14.560614 899.36523
167.08081 -14.561522 899.41913
167.45802 -14.564117 899.5816
167.83632 -14.566797 899.74713
168.19507 -14.567771 899.80731
168.57228 -14.570337 899.96582
168.92355 -14.570656 899.98553
169.33299 -14.57598 900.31439
169.68341 -14.576213 900.32874
170.07419 -14.579905 900.55676
170.45909 -14.583077 900.75275
170.8304 -14.585078 900.87628
171.24487 -14.590749 901.22656
171.62338 -14.593337 901.38647
172.05193 -14.600161 901.80792
172.42432 -14.602202 901.93402
172.89307 -14.612379 902.54614
150.82031 -14.319342 906.07727
151.1467 -14.317111 905.9361
151.39183 -14.307212 905.30969
151.65562 -14.299118 904.81323
151.99416 -14.298091 904.7326
152.23112 -14.287536 904.0647
152.54504 -14.284237 903.85596
152.85904 -14.280959 903.64856
153.1187 -14.272632 903.1358
153.44038 -14.270109 902.96204
153.73059 -14.264679 902.61841
154.02504 -14.259665 902.30109
154.362 -14.258601 902.23383
154.63208 -14.251378 901.77673
154.95946 -14.249456 901.65515
155.25659 -14.244767 901.35846
155.56544 -14.241173 901.16199
155.90945 -14.240807 901.10779
156.19495 -14.235107 900.75061
156.53053 -14.233989 900.67645
156.85902 -14.232233 900.56531
157.17944 -14.229753 900.40845
157.50343 -14.227607 900.27258
157.82219 -14.224998 900.10748
158.14462 -14.222732 899.96411
158.46945 -14.220691 899.83496
158.80032 -14.219199 899.7406
159.13715 -14.218246 899.67731
159.46675 -14.216654 899.57953
159.77776 -14.213412 899.37445
160.11099 -14.21216 899.29517
160.45557 -14.211918 899.27985
160.80054 -14.21171 899.2782
161.14096 -14.211102 899.24683
161.48825 -14.211102 899.22827
161.80161 -14.208122 899.03967
162.13065 -14.20653 898.95154
162.45953 -14.204929 898.89032
162.80309 -14.204617 898.81781
163.1369 -14.203457 898.76282
163.48401 -14.203457 898.75586
163.83112 -14.203457 898.75586
164.1803 -14.203637 898.76282
164.53763 -14.204519 898.83112
164.92076 -14.20762 899.00787
165.31555 -14.21171 899.25452
165.66286 -14.21171 899.28046
166.013 -14.211953 899.28204
166.36362 -14.212234 899.29987
166.7186 -14.212888 899.36523
167.0804 -14.214119 899.41913
167.45802 -14.216687 899.5816
167.83632 -14.219303 899.74713
168.19507 -14.220254 899.80731
168.57309 -14.222827 899.97015
168.92378 -14.223089 899.98676
169.334 -14.228353 900.31976
169.68993 -14.22904 900.36328
170.07729 -14.232356 900.57312
170.45909 -14.235195 900.75275
170.82919 -14.237048 900.87628
171.24487 -14.242683 901.22656
171.62338 -14.24521 901.38647
172.05193 -14.251871 901.80792
172.42432 -14.253863 901.93402
172.89307 -14.263798 902.54614
150.60451 -13.981856 906.88501
150.82343 -13.969692 906.09601
151.15376 -13.96788 905.97852
151.40018 -13.958339 905.35962
151.65825 -13.949915 904.81323
151.99672 -13.948907 904.74786
152.23447 -13.938682 904.08459
152.54807 -13.935432 903.8739
152.86632 -13.932621 903.69153
153.12241 -13.92417 903.14343
153.44702 -13.921976 903.00104
153.73099 -13.916112 902.62073
154.03143 -13.911762 902.33856
154.36501 -13.910418 902.2514
154.63416 -13.903287 901.78888
154.96469 -13.901694 901.68555
155.26009 -13.896964 901.37872
155.57143 -13.893679 901.16565
155.91298 -13.893101 901.12817
156.19495 -13.887227 900.75061
156.53088 -13.886168 900.67853
156.85902 -13.884423 900.56531
157.17944 -13.882005 900.40845
157.50691 -13.880217 900.29248
157.82219 -13.877364 900.10748
158.14677 -13.875343 899.97638
158.47179 -13.873367 899.84821
158.80032 -13.871708 899.7406
159.13663 -13.870732 899.67731
159.4688 -13.869402 899.59106
159.77776 -13.866062 899.37445
160.11099 -13.864841 899.29517
160.45557 -13.864604 899.27985
160.80289 -13.864604 899.27985
161.1499 -13.864579 899.27399
161.49821 -13.864665 899.22827
161.80161 -13.860902 899.03967
162.13293 -13.859543 898.95154
162.46904 -13.858599 898.89063
162.81621 -13.858599 898.83765
163.14545 -13.857076 898.77094
163.48608 -13.856525 898.76282
163.83319 -13.856525 898.76282
164.1803 -13.856525 898.76282
164.53763 -13.857386 898.83112
164.92076 -13.860412 899.00787
165.31807 -13.864614 899.26672
165.66568 -13.864638 899.28046
166.0163 -13.864913 899.29535
166.36499 -13.865028 899.30737
166.72327 -13.865939 899.36523
167.0804 -13.866752 899.42133
167.45802 -13.869257 899.5816
167.83632 -13.871809 899.74713
168.19925 -13.873081 899.82971
168.57309 -13.875247 899.97015
168.92378 -13.875503 899.98676
169.334 -13.880637 900.31976
169.68993 -13.881309 900.36328
170.07729 -13.884543 900.57312
170.45985 -13.887375 900.75275
170.82919 -13.88912 900.87628
171.24487 -13.894617 901.22656
171.62338 -13.897082 901.38647
172.05193 -13.903581 901.80792
172.42432 -13.905524 901.93402
172.88992 -13.914963 902.54614
173.25832 -13.916554 902.64941
150.60509 -13.631659 906.88849
150.82933 -13.620278 906.13141
151.15651 -13.618227 905.99493
151.40329 -13.608956 905.37823
151.66214 -13.600812 904.83636
152.00363 -13.6001 904.789
152.23447 -13.589512 904.08459
152.55971 -13.58738 903.94281
152.86745 -13.583705 903.69824
153.12241 -13.575365 903.14343
153.44983 -13.573473 903.01758
153.73277 -13.567666 902.63123
154.03285 -13.563393 902.34692
154.36501 -13.561956 902.2514
154.63661 -13.555219 901.80316
154.96909 -13.553836 901.71118
155.26009 -13.54884 901.37872
155.57202 -13.54569 901.16913
155.91306 -13.54508 901.12866
156.19661 -13.539492 900.75684
156.53088 -13.538315 900.67853
156.85902 -13.536613 900.56531
157.17944 -13.534255 900.40845
157.50691 -13.532512 900.29248
157.82219 -13.529732 900.10748
158.14677 -13.527761 899.97638
158.47195 -13.525848 899.84918
158.80032 -13.524216 899.7406
159.13663 -13.523265 899.67731
159.4688 -13.521968 899.59106
159.77925 -13.51884 899.38293
160.11223 -13.517626 899.29578
160.45627 -13.517349 899.28375
160.80359 -13.517349 899.28375
161.1499 -13.517266 899.27985
161.49821 -13.517349 899.26672
161.80022 -13.513565 899.03198
162.13293 -13.512356 898.95154
162.47128 -13.511621 898.90271
162.81845 -13.511621 898.89032
163.14171 -13.509641 898.77094
163.48735 -13.509519 898.76282
163.83446 -13.509519 898.76282
164.18158 -13.509519 898.77094
164.5419 -13.510604 898.83496
164.92076 -13.513203 899.00787
165.31807 -13.5173 899.25879
165.66568 -13.517323 899.28046
166.01544 -13.517524 899.28632
166.36362 -13.517591 899.30157
166.72327 -13.518592 899.35815
167.08868 -13.520055 899.46368
167.46156 -13.522113 899.60071
167.83893 -13.524525 899.74713
168.20224 -13.525796 899.83038
168.57396 -13.527737 899.97015
168.92795 -13.52825 900.00897
169.334 -13.532922 900.31976
169.69463 -13.533951 900.38824
170.07794 -13.536782 900.57312
170.45985 -13.539491 900.75677
170.83369 -13.541549 900.87921
171.24544 -13.546597 901.22656
171.62358 -13.54897 901.38647
172.05193 -13.555291 901.80792
172.43307 -13.557874 901.9798
172.88992 -13.566387 902.54614
173.25832 -13.56794 902.64941
150.82933 -13.270319 906.13141
151.15651 -13.268319 905.99493
151.41043 -13.259913 905.42096
151.66882 -13.251937 904.87628
152.00507 -13.250784 904.79755
152.2368 -13.240545 904.09845
152.55971 -13.238266 903.94281
152.87131 -13.235018 903.72101
153.1266 -13.226922 903.16821
153.45078 -13.224798 903.02319
153.73599 -13.219335 902.65009
154.03328 -13.214931 902.34937
154.37032 -13.21395 902.28241
154.63661 -13.206931 901.80316
154.96909 -13.205584 901.71118
155.26186 -13.200867 901.3891
155.57202 -13.197646 901.16913
155.91347 -13.197087 901.13104
156.19714 -13.191652 900.75989
156.53941 -13.191179 900.7276
156.86259 -13.189103 900.58588
157.1757 -13.186192 900.40845
157.50691 -13.184807 900.29248
157.823 -13.182166 900.11212
158.14893 -13.180357 899.98859
158.47195 -13.178314 899.84918
158.80032 -13.176724 899.7406
159.13663 -13.175797 899.67731
159.46883 -13.174537 899.59119
159.77925 -13.171487 899.38293
160.1111 -13.170211 899.30212
160.45557 -13.169977 899.28375
160.80289 -13.169977 899.28375
161.14914 -13.16989 899.2782
161.49821 -13.170034 899.27399
161.79488 -13.165912 899.00226
162.13065 -13.164984 898.95154
162.4691 -13.164276 898.90271
162.81627 -13.164276 898.89032
163.14171 -13.162524 898.77936
163.48735 -13.162405 898.77094
163.83446 -13.162405 898.77094
164.18158 -13.162405 898.77094
164.5419 -13.163462 898.83496
164.92076 -13.165995 899.00787
165.30942 -13.169296 899.2334
165.66139 -13.169668 899.28046
166.01378 -13.170072 899.28632
166.36499 -13.170381 899.30157
166.72173 -13.171124 899.35815
167.08868 -13.172669 899.46368
167.46156 -13.174676 899.60071
167.83191 -13.176474 899.72345
168.19939 -13.17804 899.83038
168.5585 -13.178946 899.89227
168.92795 -13.180655 900.00897
169.32222 -13.184289 900.25714
169.69463 -13.18621 900.38824
170.06256 -13.187776 900.55176
170.45909 -13.191548 900.75677
170.83095 -13.1934 900.89368
171.24487 -13.198486 901.22949
171.62088 -13.200635 901.38647
172.03867 -13.205982 901.80792
172.43307 -13.209517 901.9798
172.86864 -13.216185 902.52533
173.25696 -13.21922 902.64941
150.82933 -12.920359 906.13141
151.15651 -12.918412 905.99493
151.41142 -12.910312 905.42682
151.67004 -12.902565 904.88348
152.00507 -12.90134 904.79755
152.24156 -12.891774 904.12677
152.56104 -12.889263 903.95068
152.87326 -12.886154 903.7326
153.12991 -12.878386 903.18774
153.45436 -12.87634 903.04425
153.73825 -12.870908 902.65967
154.04123 -12.867096 902.36743
154.37109 -12.865541 902.28699
154.6402 -12.858941 901.81018
154.96909 -12.857331 901.71118
155.26186 -12.852738 901.3891
155.57607 -12.849936 901.1925
155.91617 -12.849281 901.14661
156.20456 -12.844378 900.80267
156.54283 -12.843586 900.73199
156.86272 -12.841295 900.58655
157.1757 -12.83845 900.40845
157.50691 -12.837102 900.29248
157.82611 -12.834784 900.12988
158.14905 -12.832779 899.98932
158.47279 -12.83085 899.85394
158.80157 -12.829334 899.74768
159.13663 -12.828331 899.67731
159.46883 -12.827103 899.59119
159.78232 -12.824379 899.38293
160.11429 -12.823146 899.31372
160.45831 -12.822882 899.29517
160.80563 -12.822882 899.28375
161.1499 -12.82264 899.2782
161.49902 -12.822783 899.27399
161.79488 -12.818706 899.00226
162.13301 -12.817989 898.95154
162.47128 -12.817286 898.90271
162.81845 -12.817286 898.88098
163.14571 -12.815722 898.77936
163.48882 -12.815407 898.77094
163.83594 -12.815407 898.77094
164.18306 -12.815407 898.77936
164.54262 -12.816376 898.83496
164.92076 -12.818786 899.00787
165.30942 -12.822001 899.2334
165.66139 -12.822363 899.25879
166.01378 -12.822756 899.28632
166.36392 -12.822973 899.30157
166.72173 -12.82378 899.35815
167.0914 -12.825493 899.47827
167.46405 -12.827429 899.61401
167.83191 -12.828989 899.72345
168.20224 -12.830731 899.8457
168.5585 -12.831396 899.89227
168.94386 -12.834269 900.00897
169.32222 -12.836598 900.25714
169.69576 -12.838553 900.39423
170.07324 -12.840799 900.55176
170.45985 -12.843722 900.75677
170.83826 -12.846018 900.91772
171.24939 -12.85076 901.24536
171.62926 -12.85314 901.38745
172.06038 -12.859343 901.82678
172.44745 -12.862234 902.05499
172.88593 -12.86894 902.52533
173.25993 -12.87083 902.64941
150.82639 -12.570154 906.11377
151.15651 -12.568505 905.99493
151.41406 -12.560844 905.42682
151.67004 -12.553087 904.88348
152.00656 -12.552018 904.79755
152.24872 -12.543178 904.16919
152.56204 -12.54023 903.95068
152.87535 -12.537292 903.74493
153.13116 -12.529664 903.19507
153.45854 -12.527914 903.06891
153.73763 -12.522237 902.66333
154.03636 -12.518183 902.396
154.37109 -12.517066 902.28699
154.63782 -12.510452 901.82404
154.96909 -12.509078 901.71118
155.26186 -12.50461 901.3891
155.57607 -12.501884 901.1925
155.91617 -12.501246 901.14661
156.20456 -12.496475 900.80267
156.54018 -12.495495 900.74719
156.86272 -12.493477 900.58655
157.18002 -12.491052 900.41168
157.50691 -12.489398 900.29248
157.82896 -12.487368 900.14618
158.14937 -12.485217 899.99115
158.47298 -12.483329 899.85504
158.80228 -12.481894 899.75165
159.13547 -12.480773 899.67731
159.46883 -12.479669 899.59119
159.77867 -12.476734 899.38293
160.11429 -12.47582 899.31372
160.45528 -12.475327 899.30231
160.8026 -12.475327 899.28375
161.14598 -12.475023 899.2782
161.49646 -12.475268 899.25629
161.79124 -12.47122 898.98987
162.13301 -12.470802 898.9389
162.46736 -12.469816 898.89063
162.81451 -12.469816 898.87109
163.14323 -12.468407 898.78381
163.48882 -12.468289 898.77094
163.83594 -12.468289 898.77094
164.18306 -12.468289 898.77936
164.5419 -12.469178 898.83496
164.92281 -12.471731 899.01898
165.30916 -12.474686 899.23199
165.65671 -12.474705 899.25879
166.01378 -12.475439 899.28632
166.36392 -12.475652 899.30157
166.72046 -12.476341 899.35815
167.0914 -12.478103 899.47827
167.46405 -12.479986 899.61401
167.82806 -12.481218 899.72345
168.19664 -12.482784 899.83038
168.5585 -12.483846 899.89227
168.92795 -12.485465 900.02411
169.31992 -12.488737 900.25714
169.69576 -12.490809 900.39423
170.062 -12.492168 900.52515
170.45319 -12.495351 900.75677
170.83826 -12.498072 900.91772
171.24846 -12.502617 901.24536
171.62187 -12.504463 901.37848
172.05553 -12.510682 901.82678
172.44745 -12.513848 902.05499
172.87865 -12.519845 902.52533
173.25775 -12.522054 902.65784
150.82639 -12.220201 906.11377
151.15781 -12.218703 906.00275
151.41406 -12.21115 905.43433
151.67004 -12.203609 904.88348
151.99939 -12.201994 904.76373
152.2494 -12.194031 904.17328
152.56204 -12.19111 903.95068
152.87778 -12.188448 903.75928
153.1358 -12.181208 903.22101
153.46127 -12.179353 903.08496
153.73825 -12.173667 902.66333
154.0417 -12.170098 902.39868
154.37427 -12.168841 902.30548
154.64035 -12.162361 901.82495
154.97168 -12.161029 901.7262
155.26944 -12.157075 901.43304
155.58461 -12.1545 901.24207
155.91783 -12.153342 901.15625
156.20586 -12.148675 900.81018
156.54491 -12.147987 900.75793
156.86806 -12.146072 900.58655
157.18677 -12.143822 900.41168
157.50708 -12.141706 900.29346
157.83708 -12.140345 900.14618
158.15364 -12.137957 899.99115
158.47316 -12.135807 899.85602
158.80251 -12.134417 899.75293
159.13812 -12.133511 899.67731
159.47031 -12.132347 899.59955
159.78773 -12.13007 899.40015
160.12083 -12.128989 899.35052
160.45958 -12.128339 899.30347
160.8069 -12.128339 899.29517
161.14598 -12.127719 899.2782
161.49646 -12.127957 899.25629
161.79124 -12.124021 898.98987
162.12193 -12.122787 898.90271
162.46623 -12.122572 898.87469
162.81194 -12.122464 898.8667
163.14404 -12.121346 898.79297
163.49036 -12.121286 898.77936
163.83746 -12.121286 898.77936
164.18459 -12.121286 898.77936
164.54262 -12.122089 898.83893
164.94016 -12.125794 899.01898
165.30916 -12.127391 899.23199
165.66139 -12.127752 899.2334
166.01392 -12.128133 899.28632
166.36661 -12.128525 899.30157
166.72173 -12.129092 899.35815
167.09406 -12.130906 899.48944
167.46475 -12.132594 899.61401
167.83191 -12.134019 899.71094
168.20224 -12.135668 899.81573
168.56921 -12.137067 899.94946
168.94287 -12.138942 900.08844
169.32222 -12.141216 900.25714
169.69664 -12.143129 900.39423
170.07324 -12.145189 900.52515
170.46407 -12.148255 900.75708
170.84068 -12.150298 900.93054
171.24939 -12.154611 901.25031
171.63933 -12.157576 901.37848
172.06911 -12.163345 901.82678
172.44745 -12.165463 902.05499
172.88593 -12.171806 902.52533
173.26822 -12.174176 902.6864
150.8262 -11.870234 906.11267
151.15781 -11.868793 906.00275
151.41142 -11.861249 905.43433
151.66545 -11.853773 904.85614
151.99344 -11.852098 904.72833
152.2494 -11.844828 904.17328
152.55498 -11.841441 903.94995
152.87778 -11.839404 903.75928
153.13556 -11.832353 903.22247
153.46344 -11.830737 903.09766
153.74641 -11.825675 902.7113
154.0417 -11.82158 902.39868
154.37427 -11.820359 902.30548
154.64484 -11.814407 901.85114
154.97751 -11.813215 901.76013
155.28047 -11.809769 901.49713
155.58636 -11.806561 901.2522
155.91783 -11.805304 901.15625
156.20586 -11.80077 900.81018
156.54469 -11.800086 900.75793
156.86272 -11.797841 900.61719
157.18002 -11.79555 900.41254
157.50708 -11.794002 900.29346
157.82896 -11.792071 900.17975
158.14937 -11.790041 900.00256
158.47331 -11.788281 899.85687
158.80251 -11.786921 899.75293
159.13547 -11.785844 899.67078
159.47031 -11.78491 899.59955
159.77867 -11.782029 899.4151
160.12083 -11.781649 899.35052
160.45978 -11.781032 899.32837
160.8071 -11.781032 899.30347
161.14598 -11.780414 899.27582
161.49646 -11.780645 899.25629
161.79263 -11.776923 898.98987
162.11906 -11.775415 898.88098
162.46558 -11.775368 898.87109
162.81091 -11.775236 898.8667
163.14578 -11.77435 898.7934
163.48712 -11.773933 898.77936
163.83423 -11.773933 898.77936
164.18135 -11.773933 898.77936
164.53535 -11.774426 898.83496
164.92281 -11.777306 899.07532
165.30916 -11.780096 899.23199
165.6566 -11.780106 899.23279
166.0087 -11.780446 899.25879
166.36392 -11.781008 899.30157
166.72046 -11.781658 899.35815
167.09346 -11.783468 899.48944
167.46405 -11.785101 899.61401
167.82803 -11.786263 899.70288
168.19598 -11.787697 899.81219
168.56921 -11.789495 899.94946
168.93079 -11.790472 900.03693
169.32222 -11.793526 900.25714
169.69171 -11.79504 900.39423
170.06822 -11.797036 900.52515
170.4599 -11.800075 900.77905
170.84068 -11.802347 900.93054
171.24846 -11.806472 901.24536
171.62187 -11.808215 901.37848
172.05553 -11.814088 901.82678
172.43779 -11.816416 902.00446
172.88593 -11.823239 902.52533
150.8262 -11.520282 906.11267
151.15781 -11.518884 906.00275
151.41267 -11.511657 905.43433
151.6633 -11.504143 904.84332
151.99344 -11.502681 904.72833
152.25011 -11.495677 904.17743
152.56091 -11.492785 903.94995
152.88004 -11.49053 903.76013
153.1362 -11.483564 903.22473
153.46857 -11.482332 903.12787
153.75053 -11.477344 902.73547
154.04573 -11.473362 902.4223
154.38017 -11.472316 902.31067
154.64558 -11.466155 901.85297
154.98076 -11.465184 901.77905
155.28123 -11.461655 901.50153
155.58757 -11.458574 901.25726
155.92694 -11.457934 901.20886
156.20802 -11.453025 900.82269
156.54469 -11.452202 900.75793
156.87421 -11.450861 900.65253
157.18156 -11.447912 900.42059
157.50708 -11.446297 900.29346
157.83571 -11.444913 900.18469
158.15137 -11.442597 900.00256
158.47365 -11.44077 899.85687
158.80405 -11.439536 899.76172
159.1402 -11.43872 899.67078
159.47649 -11.437917 899.6344
159.79034 -11.435513 899.42474
160.12453 -11.43457 899.36743
160.466 -11.434153 899.33832
160.81155 -11.434026 899.31409
161.15443 -11.433709 899.30231
161.4968 -11.433358 899.27399
161.79372 -11.429798 898.99585
162.11906 -11.428258 898.88184
162.46558 -11.428212 898.87109
162.81194 -11.428156 898.8667
163.1494 -11.427478 898.81335
163.48749 -11.426846 898.77936
163.83459 -11.426846 898.77936
164.18172 -11.426846 898.77936
164.54601 -11.428039 898.80493
164.93817 -11.431158 899.07532
165.30931 -11.432811 899.23279
165.6566 -11.432811 899.23279
166.00572 -11.432936 899.25879
166.36392 -11.433685 899.30157
166.72575 -11.43468 899.37982
167.09346 -11.436073 899.48944
167.46405 -11.437658 899.61401
167.82957 -11.43889 899.71094
168.19598 -11.440177 899.81219
168.575 -11.442315 899.98035
168.94287 -11.443689 900.03693
169.32753 -11.446194 900.2854
169.70222 -11.448014 900.37921
170.06822 -11.449242 900.52515
170.46956 -11.452839 900.80811
170.84068 -11.454396 900.93054
171.25592 -11.458899 901.24536
171.62187 -11.460092 901.37848
172.05553 -11.465791 901.82678
172.43779 -11.46805 902.00446
172.89786 -11.475464 902.56073
151.15569 -11.168817 905.98999
151.41267 -11.161966 905.43433
151.66183 -11.154572 904.84332
151.99344 -11.153263 904.72833
152.25386 -11.146747 904.19977
152.56091 -11.143667 903.94995
152.87791 -11.141327 903.77264
153.13664 -11.13476 903.22736
153.46889 -11.133556 903.12976
153.7541 -11.128954 902.75647
154.04578 -11.124839 902.42261
154.37515 -11.123459 902.33997
154.64516 -11.117817 901.85297
154.98076 -11.116905 901.77905
155.28123 -11.113483 901.50153
155.58723 -11.110473 901.25726
155.92705 -11.109884 901.20953
156.20857 -11.105153 900.82574
156.54469 -11.104317 900.75793
156.8756 -11.103115 900.66046
157.18016 -11.10006 900.42059
157.50993 -11.098792 900.30975
157.83484 -11.097189 900.18243
158.15137 -11.095005 900.00256
158.47331 -11.093209 899.85883
158.80405 -11.092036 899.76172
159.13547 -11.090915 899.67078
159.47649 -11.090466 899.6344
159.78497 -11.087763 899.4151
160.12386 -11.087175 899.36743
160.466 -11.086816 899.34131
160.81155 -11.086694 899.32837
161.15443 -11.086387 899.30347
161.4968 -11.086046 899.27582
161.79372 -11.082595 898.99585
162.11841 -11.081057 898.89459
162.46529 -11.081038 898.87469
162.81194 -11.081002 898.8667
163.1494 -11.080345 898.81335
163.48714 -11.079707 898.76361
163.83424 -11.079707 898.76361
164.18137 -11.079707 898.76361
164.53641 -11.080241 898.80493
164.93314 -11.083574 899.07532
165.30931 -11.085515 899.23279
165.6566 -11.085515 899.23279
166.00572 -11.085637 899.24261
166.36018 -11.086114 899.28137
166.72575 -11.087328 899.37982
167.08838 -11.088342 899.4621
167.46124 -11.090029 899.59894
167.82803 -11.091309 899.71094
168.19128 -11.092349 899.78748
168.575 -11.094731 899.98035
168.9332 -11.095428 900.03693
169.32753 -11.098492 900.2854
169.69292 -11.099648 900.37921
170.06664 -11.101344 900.51678
170.46956 -11.104936 900.80811
170.83659 -11.106178 900.90894
171.24846 -11.110326 901.24536
171.62137 -11.111935 901.37585
172.05492 -11.117455 901.82361
172.433 -11.119374 901.97937
172.89272 -11.126542 902.58759
151.15112 -10.818584 905.98999
151.40959 -10.812057 905.43433
151.66183 -10.805114 904.84332
151.99344 -10.803845 904.72833
152.26859 -10.798578 904.28723
152.55409 -10.794067 903.94995
152.88004 -10.792433 903.77264
153.13664 -10.785921 903.22736
153.46889 -10.784756 903.12976
153.7541 -10.780298 902.75647
154.04578 -10.776312 902.42261
154.38017 -10.775325 902.33997
154.64516 -10.769509 901.85547
154.98857 -10.769169 901.80347
155.28731 -10.765733 901.53674
155.58723 -10.762395 901.25726
155.92705 -10.761825 901.20953
156.2088 -10.757259 900.82715
156.54984 -10.756786 900.78754
156.8756 -10.755269 900.66046
157.18156 -10.752404 900.42059
157.50993 -10.751081 900.30975
157.83571 -10.749587 900.18243
158.15343 -10.747551 900.01422
158.47365 -10.745695 899.85883
158.80405 -10.744536 899.76172
159.13394 -10.743347 899.66217
159.47649 -10.743016 899.6344
159.78668 -10.740512 899.4151
160.12386 -10.739827 899.36987
160.46654 -10.739516 899.34338
160.81387 -10.739516 899.33832
161.15634 -10.739191 899.32178
161.50505 -10.739283 899.30347
161.79372 -10.735391 898.99585
162.12035 -10.734029 898.92059
162.46751 -10.734029 898.88184
162.81467 -10.734029 898.86957
163.15649 -10.733678 898.836
163.48714 -10.732594 898.76361
163.83424 -10.732594 898.76361
164.18137 -10.732594 898.76361
164.53641 -10.733111 898.80493
164.93314 -10.73634 899.07532
165.30931 -10.738219 899.23279
165.6566 -10.738219 899.23279
166.00572 -10.738338 899.24261
166.36018 -10.7388 899.28137
166.73198 -10.740376 899.41339
167.08838 -10.740958 899.4621
167.46124 -10.742592 899.59894
167.82957 -10.74393 899.71094
168.19128 -10.74484 899.78748
168.575 -10.747147 899.98035
168.9332 -10.747822 900.03693
169.33018 -10.750958 900.2995
169.69292 -10.75191 900.37921
170.06664 -10.753552 900.51678
170.47293 -10.757244 900.82593
170.83659 -10.758236 900.90894
171.24437 -10.761996 901.22388
171.62045 -10.763754 901.37103
172.05022 -10.768864 901.79895
172.43214 -10.770965 901.97491
172.90071 -10.77846 902.58759
151.15112 -10.46869 905.98999
151.41267 -10.462585 905.43433
151.6796 -10.45688 904.94055
151.99841 -10.454769 904.75787
152.27603 -10.449841 904.28723
152.56091 -10.445433 903.94995
152.88635 -10.443815 903.81
153.13924 -10.43726 903.24268
153.46953 -10.435999 903.13354
153.75745 -10.431868 902.77606
154.04834 -10.427958 902.43762
154.38068 -10.426863 902.3429
154.64589 -10.421251 901.85547
154.99008 -10.420975 901.80347
155.29076 -10.41778 901.55682
155.58723 -10.414318 901.25726
155.92705 -10.413766 901.20953
156.21266 -10.409605 900.84937
156.54984 -10.408891 900.78754
156.8756 -10.407422 900.66046
157.18156 -10.40465 900.42059
157.50993 -10.403369 900.30975
157.83533 -10.401898 900.18243
158.15343 -10.399954 900.01422
158.48045 -10.398605 899.89746
158.80405 -10.397037 899.76172
159.13394 -10.395886 899.66217
159.47276 -10.395323 899.6134
159.78497 -10.393031 899.4151
160.12428 -10.392509 899.36987
160.46692 -10.392202 899.34338
160.81425 -10.392202 899.34131
161.1588 -10.392023 899.32178
161.50613 -10.392023 899.30347
161.79372 -10.388186 898.99585
162.12735 -10.387318 898.93597
162.46982 -10.387017 898.89459
162.81699 -10.387017 898.87109
163.15726 -10.386579 898.85242
163.48714 -10.385481 898.79547
163.83424 -10.385481 898.79547
164.18137 -10.385481 898.79547
164.53641 -10.385981 898.80493
164.93314 -10.389105 899.07532
165.30931 -10.390924 899.22675
165.6566 -10.390924 899.23279
166.00572 -10.391038 899.24261
166.35918 -10.391422 899.27588
166.73198 -10.393011 899.41339
167.08838 -10.393574 899.4621
167.46124 -10.395155 899.59894
167.82957 -10.39645 899.71094
168.19136 -10.397334 899.78748
168.575 -10.399563 899.98035
168.9332 -10.400216 900.03693
169.33018 -10.403251 900.2995
169.69292 -10.404172 900.37921
170.06519 -10.405672 900.50909
170.47293 -10.409333 900.82593
170.83066 -10.409932 900.90894
171.24437 -10.413932 901.22388
171.61766 -10.415463 901.36731
172.05022 -10.420578 901.79895
172.43214 -10.42261 901.97491
172.90071 -10.429863 902.60248
151.15569 -10.119101 905.98999
151.41385 -10.112974 905.44141
151.6796 -10.10738 904.94055
152.00439 -10.105738 904.79352
152.27603 -10.100576 904.28723
152.56091 -10.096315 903.94995
152.88947 -10.094958 903.82843
153.13924 -10.088416 903.24268
153.4794 -10.087845 903.19159
153.76042 -10.0834 902.79358
154.04834 -10.079424 902.43762
154.38068 -10.078366 902.3429
154.64558 -10.072922 901.85724
154.98495 -10.072341 901.82452
155.29076 -10.069587 901.55682
155.58723 -10.06624 901.25726
155.92757 -10.065741 901.21252
156.21266 -10.061685 900.84937
156.55032 -10.061026 900.78754
156.8756 -10.059575 900.66046
157.18716 -10.057254 900.4527
157.50827 -10.055552 900.30975
157.83533 -10.054235 900.18243
158.15343 -10.052357 900.01422
158.48045 -10.051053 899.89746
158.80405 -10.049537 899.76172
159.13394 -10.048425 899.66217
159.46941 -10.047669 899.59448
159.78497 -10.045666 899.4151
160.12428 -10.04516 899.36987
160.46692 -10.044865 899.34338
160.81387 -10.044842 899.34131
161.15517 -10.044465 899.32178
161.5025 -10.044465 899.29187
161.79372 -10.040983 898.99585
162.12735 -10.040142 898.93597
162.47453 -10.040142 898.91895
162.8217 -10.040142 898.88184
163.1535 -10.039197 898.85663
163.48714 -10.038367 898.8045
163.83424 -10.038367 898.8045
164.18137 -10.038367 898.8045
164.54245 -10.03922 898.83795
164.93817 -10.042177 899.10278
165.30551 -10.043399 899.21216
165.6528 -10.043399 899.23279
166.00432 -10.043654 899.23993
166.35918 -10.04411 899.27588
166.73198 -10.045647 899.41339
167.08838 -10.04619 899.4621
167.46124 -10.047718 899.59894
167.82957 -10.04897 899.71094
168.19136 -10.049825 899.78748
168.57442 -10.051944 899.97723
168.9332 -10.05261 900.03693
169.33018 -10.055543 900.2995
169.69292 -10.056434 900.37921
170.06146 -10.057664 900.50909
170.47293 -10.061423 900.82593
170.83066 -10.062001 900.90045
171.24437 -10.065867 901.22388
171.61766 -10.067348 901.36731
172.05022 -10.072291 901.79895
172.43214 -10.074256 901.97491
172.89272 -10.080799 902.60248
173.25711 -10.08172 902.65619
151.16438 -9.7697573 906.04205
151.41393 -9.7632847 905.44183
151.6796 -9.7578793 904.94055
152.011 -9.7567186 904.83282
152.26859 -9.7508354 904.28723
152.5665 -9.7475557 903.98309
152.88947 -9.7458878 903.82843
153.14034 -9.7396421 903.24921
153.4794 -9.7390213 903.19159
153.76042 -9.7347288 902.79358
154.0558 -9.7313623 902.48132
154.38606 -9.7302103 902.37445
154.6521 -9.7250242 901.89349
154.98495 -9.7240524 901.83331
155.29076 -9.7213936 901.55682
155.59146 -9.7184277 901.28174
155.92757 -9.7176809 901.21252
156.21266 -9.7137651 900.84937
156.55032 -9.713129 900.79034
156.8756 -9.7117281 900.66046
157.18834 -9.7095594 900.45935
157.51053 -9.707983 900.30029
157.83533 -9.7065735 900.18243
158.15359 -9.7047701 900.01422
158.48126 -9.7035503 899.90204
158.81068 -9.7024422 899.79932
159.13394 -9.700964 899.66217
159.46941 -9.7002344 899.59448
159.78497 -9.6982994 899.4151
160.12428 -9.6978121 899.36987
160.46692 -9.6975269 899.34338
160.81387 -9.697504 899.34131
161.15059 -9.6968651 899.30762
161.5025 -9.6971407 899.28204
161.78886 -9.6934881 898.98322
162.13013 -9.6931334 898.93597
162.47729 -9.6931334 898.92059
162.82448 -9.6931334 898.91895
163.15726 -9.6922779 898.85663
163.49492 -9.6917152 898.80695
163.84206 -9.6917152 898.80493
164.18753 -9.691618 898.80493
164.54643 -9.6923113 898.85974
164.94292 -9.6952105 899.12866
165.3082 -9.6962681 899.19818
165.65549 -9.6962681 899.22675
166.00607 -9.6964607 899.23505
166.35918 -9.6967983 899.27588
166.73198 -9.6982813 899.41339
167.0905 -9.6989298 899.47351
167.46335 -9.7004042 899.60492
167.83846 -9.7020035 899.71094
168.19887 -9.7027473 899.78748
168.57442 -9.704361 899.97723
168.93442 -9.7050753 900.04346
169.33018 -9.7078362 900.2995
169.69292 -9.7086954 900.37921
170.06519 -9.7100954 900.48938
170.4731 -9.713521 900.82593
170.83659 -9.7144079 900.90045
171.24437 -9.717803 901.22388
171.61975 -9.7193499 901.36731
172.05051 -9.724021 901.79895
172.43449 -9.7260351 901.98724
172.90071 -9.7326689 902.56073
173.26413 -9.7335014 902.67969
151.16997 -9.4201803 906.07556
151.42047 -9.4139986 905.48102
151.68184 -9.4085188 904.95386
152.01224 -9.4073372 904.84021
152.26266 -9.4012222 904.25208
152.5665 -9.3984251 903.98309
152.8938 -9.3970842 903.85406
153.14034 -9.3907957 903.24921
153.4794 -9.3901968 903.19159
153.76289 -9.3862085 902.80798
154.0558 -9.3828125 902.48132
154.38643 -9.3817234 902.37659
154.6521 -9.3767004 901.89349
154.99008 -9.3760748 901.83331
155.29076 -9.3732004 901.55682
155.59146 -9.3703403 901.28174
155.92757 -9.3696213 901.21252
156.2093 -9.3656445 900.84937
156.53885 -9.3645449 900.79034
156.87482 -9.3638353 900.66046
157.18958 -9.3618641 900.46649
157.50827 -9.360136 900.30029
157.83533 -9.3589115 900.18243
158.15343 -9.3571625 900.01422
158.48126 -9.3559961 899.90204
158.81068 -9.354928 899.79932
159.13394 -9.3535023 899.66217
159.46779 -9.3527031 899.58801
159.78238 -9.3507824 899.4151
160.12428 -9.3504639 899.36987
160.46654 -9.3501663 899.34338
160.81041 -9.3499641 899.34131
161.14972 -9.3494997 899.30762
161.49966 -9.3496523 899.27722
161.78874 -9.3462877 898.96893
162.12704 -9.3457756 898.93597
162.47421 -9.3457756 898.93597
162.8214 -9.3457756 898.91895
163.15726 -9.3451281 898.85663
163.49492 -9.3445854 898.80695
163.84206 -9.3445854 898.80695
164.18753 -9.344492 898.80695
164.54643 -9.3451595 898.85974
164.94292 -9.3479557 899.12866
165.30006 -9.3485155 899.1825
165.64734 -9.3485155 899.21216
166.00279 -9.3489752 899.23505
166.35252 -9.3491125 899.24457
166.72481 -9.3505144 899.37476
167.0905 -9.3515406 899.47351
167.46236 -9.3529072 899.60492
167.82843 -9.3539457 899.70483
168.19887 -9.3552227 899.78748
168.56656 -9.3563414 899.9353
168.93442 -9.3574667 900.04346
